ply
format ascii 1.0
element vertex 1005
property float x
property float y
property float z
property uint8 red
property uint8 green
property uint8 blue
property uint8 alpha
end_header
-0.26200625 0.6471775 0.06812378 42 45 38 255
-0.037868924 0.9427814 0.049528647 139 126 92 255
0.023272935 0.15772064 -0.059153277 105 117 134 255
-0.014781541 0.9621731 0.014050383 63 54 25 255
-0.141239 0.83841574 0.055422924 137 149 123 255
-0.24485552 0.8963654 0.16565596 100 99 79 255
-0.058693234 0.8913572 0.04593773 173 168 154 255
-0.029328763 0.96797323 0.00807293 196 187 158 255
-0.029328763 0.96797323 0.00807293 196 187 158 255
0.2403605 0.22514619 0.06364239 104 121 146 255
-0.2437431 0.7774741 0.13961159 40 33 5 255
-0.12522559 0.102365546 0.05491315 80 85 93 255
-0.17749996 0.94365233 0.1203403 93 89 85 255
-0.12706369 0.3361684 0.11634324 11 18 38 255
0.3761044 0.27065524 0.09999847 90 109 131 255
-0.1364346 0.72185063 0.021605663 130 133 107 255
-0.2172417 0.88344765 0.1358448 40 35 4 255
-0.21697807 0.8833245 0.1367754 61 55 12 255
-0.1682733 0.6272269 0.16358943 27 43 0 255
0.15346345 0.1817403 -0.41497582 112 129 149 255
-0.2241901 0.86439294 0.15749402 83 80 48 255
0.35351542 0.26120663 -0.061972138 123 142 166 255
-0.14147742 0.3359795 0.06516313 47 46 55 255
0.30733943 0.23480806 -0.34255978 97 117 141 255
0.18821903 0.21019657 0.12874173 83 101 123 255
-0.21257323 0.9065362 0.096117236 51 56 42 255
-0.20588908 0.9429769 0.11683351 51 63 48 255
-0.07345555 0.9575173 0.101404846 37 38 16 255
-0.004488414 1.001821 -0.018165924 143 133 109 255
-0.07463511 1.0133529 -0.0050426084 186 189 186 255
0.31072566 0.2477755 0.107319884 116 135 156 255
-0.07828454 0.9863221 0.077599406 104 112 78 255
-0.03808199 0.89812005 0.0034083286 191 188 183 255
0.012611147 0.15861617 0.12598719 72 90 111 255
-0.19158724 0.9333655 0.11710759 44 56 38 255
-0.20845988 0.93316543 0.09773344 52 50 44 255
-0.07341872 0.89061284 0.02267238 90 91 61 255
-0.080624774 0.19241473 0.053165924 90 82 88 255
-0.048120346 0.8992359 -0.009105461 44 41 32 255
-0.19642074 0.85743374 0.1457094 124 118 89 255
0.032819245 0.15763675 -0.07965473 110 122 137 255
-0.19865265 0.11218961 0.008859577 86 98 111 255
0.28202456 0.26297823 -0.11211036 113 141 168 255
-0.1363796 0.7515975 0.023281414 153 159 157 255
0.43115753 0.27421486 -0.10699762 133 156 177 255
-0.20099708 0.88426095 0.11895799 48 60 41 255
0.25353688 0.22671498 -0.03261857 126 147 170 255
-0.20119777 0.8347875 0.15991342 74 74 38 255
0.08643641 0.1882066 0.1474518 93 108 130 255
-0.22106957 0.8743542 0.15094802 49 43 2 255
0.38148805 0.27021763 0.11004753 67 86 110 255
-0.13909788 0.9768027 0.11650248 72 80 52 255
-0.03324456 0.1191547 -0.3850342 135 144 157 255
-0.17726639 0.77785766 -0.00059876166 99 113 126 255
-0.21661352 0.7887093 0.123668306 72 69 27 255
-0.031753357 0.9059088 0.035505563 112 97 76 255
-0.078158244 0.25203118 0.03598432 52 53 79 255
-0.12012538 0.62739295 -0.043213233 156 162 166 255
-0.12016877 0.6278563 -0.042572085 157 163 167 255
-0.111229524 0.33957458 0.051401023 104 109 94 255
-0.17749907 0.7474358 0.049375966 1 7 2 255
-0.17976627 0.7489673 0.15885702 103 122 71 255
-0.2330227 0.962231 0.10981563 8 16 3 255
-0.1841933 0.8371861 0.15110186 6 26 1 255
-0.15597345 0.6819944 0.03227715 140 147 153 255
0.46413234 0.2982775 0.09874993 197 209 231 255
-0.12629285 0.8621704 0.05268523 1 9 1 255
-0.075072624 0.18319641 0.091380246 36 33 47 255
-0.20406398 0.88656056 0.13709405 103 101 80 255
-0.15057284 0.8966901 0.09749309 33 43 10 255
0.19289193 0.19280785 -0.4329426 117 139 166 255
-0.257017 0.7278857 0.08213827 2 3 2 255
-0.07654458 0.97352344 0.07182822 111 121 79 255
-0.047594756 0.9142137 0.012036114 209 197 183 255
0.47932106 0.29396462 -0.2208871 128 147 170 255
-0.11883992 1.003107 0.045362964 44 47 38 255
-0.06287111 0.93169916 0.019711552 202 202 198 255
-0.15888385 0.99638605 0.09965082 156 153 160 255
-0.048610315 0.9018792 0.0012983409 84 75 61 255
-0.22223693 0.9132746 0.058090895 9 12 9 255
0.35944077 0.26714617 0.0529627 117 136 162 255
-0.036586635 0.9944358 0.13002719 110 112 90 255
0.2632477 0.21013999 -0.40301767 130 150 178 255
-0.27781028 0.9753496 0.14176707 54 49 38 255
0.21622375 0.2190601 0.02054211 87 106 126 255
-0.10343621 0.11739481 0.12791233 67 74 85 255
-0.2714564 0.904001 0.12972836 3 4 6 255
0.111852795 0.21807942 -0.17109512 111 131 156 255
-0.06416587 0.9461598 0.05682599 31 34 12 255
-0.3153492 0.90808654 0.0347665 64 65 55 255
-0.13006699 0.7074678 0.02455169 128 136 109 255
-0.12845972 0.10301164 0.14274226 78 86 100 255
-0.09548983 0.69914365 -0.024509648 0 7 0 255
-0.14740662 0.96855235 0.096708395 2 5 0 255
-0.14650254 0.9696711 0.10055193 2 5 0 255
-0.13929184 0.7054757 0.02150926 127 132 111 255
0.22026107 0.21381152 -0.083671436 114 135 157 255
0.35814583 0.25380865 0.049861696 101 119 144 255
0.35814583 0.25380865 0.049861696 101 119 144 255
0.01648176 0.1789819 -0.058811516 107 122 142 255
-0.07090501 0.9489072 0.11281587 108 76 91 255
-0.14734888 0.7427475 0.029227028 56 61 48 255
-0.20315139 0.92841744 0.107817195 82 83 78 255
-0.041812588 0.8657131 0.008979317 79 75 57 255
-0.27379337 0.9943699 0.14158215 141 126 138 255
0.1207009 0.18903859 0.0940776 111 129 155 255
-0.033437766 0.8668424 0.020821912 199 193 166 255
-0.2850812 0.89536434 0.047744315 50 46 49 255
-0.11796958 0.1100235 0.18524009 78 88 98 255
0.51851416 0.30297798 -0.25115484 136 156 182 255
-0.111808725 0.9805378 0.13217026 41 55 9 255
-0.26561204 0.56881756 0.046260938 49 49 30 255
0.19013655 0.20735459 -0.20677479 109 128 157 255
-0.020440642 0.9326177 0.024230007 94 76 48 255
-0.057852436 0.92645866 0.011352025 209 199 197 255
-0.057160538 0.9290946 0.018766018 210 203 204 255
-0.0723271 0.9279178 0.08431734 15 11 2 255
-0.27267253 0.9927676 0.16461483 60 55 55 255
-0.31696883 0.96723294 -0.077606924 157 155 167 255
-0.05992115 0.93270814 0.03771347 56 55 45 255
0.16996917 0.20381548 -0.23722382 115 134 158 255
0.16996938 0.20440668 -0.23676732 115 135 159 255
-0.097640865 0.9732622 0.06868709 93 99 89 255
-0.24342002 0.9687563 0.13345362 70 76 64 255
-0.146903 0.36998233 0.056813907 33 45 51 255
-0.102413535 0.97806925 0.056468423 102 112 77 255
0.20366912 0.19077903 -0.21643308 118 140 168 255
-0.04361684 0.8728377 0.037607357 195 191 180 255
-0.14363901 0.6327774 0.1802753 160 167 129 255
-0.25447726 0.8801426 0.16735752 85 69 81 255
-0.17293291 0.96266323 0.07629067 40 45 32 255
-0.13680951 0.95893526 0.10990663 51 48 51 255
-0.13953088 0.82388085 0.04093642 7 25 3 255
-0.008023232 0.11011686 -0.15795581 108 123 140 255
-0.20128213 0.8492565 0.11794896 105 101 80 255
-0.101459704 0.99709743 0.086942345 30 34 19 255
-0.26279572 0.9814067 0.17099124 96 84 79 255
-0.15641382 0.90831226 0.097912006 36 49 15 255
-0.26458487 0.99207765 0.16935985 59 53 55 255
-0.23092167 0.9650414 -0.07796416 105 83 83 255
0.09138918 0.16495746 -0.20828994 113 132 156 255
-0.16071938 0.08958926 0.043532956 90 101 115 255
0.2306401 0.22013316 -0.02910748 119 138 163 255
-0.04092515 0.89889747 0.056276076 168 160 131 255
-0.11936443 0.26283857 0.08201643 41 48 58 255
-0.19183141 0.981605 0.11613851 13 23 2 255
-0.099316716 0.98427266 0.058831647 107 114 91 255
-0.18246806 0.8564403 0.12881477 136 132 101 255
-0.1849787 0.7478162 0.16549896 20 33 2 255
0.17511553 0.18837613 -0.43899292 128 146 175 255
0.41803336 0.27213547 -0.24525431 94 113 141 255
-0.055119712 0.17641294 0.08891374 83 67 73 255
-0.16719903 0.085527994 0.01753894 93 105 119 255
-0.21694517 0.8815876 0.14047602 96 90 56 255
0.03436272 0.15941314 0.13524468 84 101 119 255
0.26797214 0.23829691 0.14233324 109 126 144 255
-0.05946886 0.92997515 0.009730963 49 45 32 255
0.10909229 0.1975675 0.05748718 97 113 131 255
-0.37747467 0.95344126 -0.07961824 81 88 76 255
-0.01956359 0.98506796 0.008368573 160 148 122 255
-0.060324103 0.78620994 0.08593268 145 160 144 255
-0.23688522 0.97683185 0.112838306 62 58 63 255
-0.23540123 0.97829497 0.11631479 46 40 44 255
0.38349834 0.26767293 0.017589742 117 135 161 255
-0.25682604 0.9073309 0.16080463 73 58 64 255
0.17388615 0.20201422 -0.028272389 111 132 158 255
-0.18387413 0.8330208 0.123368725 147 150 123 255
-0.18885897 0.07918704 0.0069160755 82 92 107 255
0.03461175 0.16289347 -0.11101073 105 120 140 255
-0.24802549 0.9751203 0.15132774 47 63 27 255
-0.26007742 0.8942826 0.15146258 38 18 35 255
0.17591754 0.20757075 0.06450821 124 142 162 255
0.27224654 0.23739171 0.09388636 113 133 158 255
-0.16037028 0.6569027 0.16715622 3 16 0 255
-0.14546292 0.105533265 0.03352359 91 101 114 255
0.33093044 0.24836168 -0.22480781 135 159 186 255
0.33093044 0.24836168 -0.22480781 135 159 186 255
-0.12276742 0.57955325 0.18485934 211 222 199 255
-0.15184514 0.5798632 0.17735218 13 29 1 255
0.26793587 0.23433395 0.065972276 112 130 157 255
-0.23723948 0.8686199 0.13860686 35 22 4 255
0.059559252 0.17246546 0.16783357 83 102 123 255
0.05954655 0.17050104 0.16669112 83 101 121 255
0.05915375 0.17200069 0.16764599 82 101 121 255
-0.25934666 0.97431666 0.15782359 21 35 13 255
-0.18042368 0.72806776 0.18624444 39 39 8 255
0.2861045 0.22456382 -0.41158748 126 149 176 255
0.40129495 0.275258 -0.099509254 101 120 148 255
0.4015875 0.27484074 -0.09997023 100 118 147 255
-0.1263599 0.611985 0.095596805 18 44 0 255
0.19055986 0.21458933 0.04496411 114 130 153 255
-0.24499385 0.7492295 0.14662111 96 99 60 255
-0.2678165 0.3758531 -0.021153353 124 132 135 255
0.2971784 0.24070719 0.030198688 107 126 148 255
0.48811653 0.2996076 -0.10651954 109 125 150 255
0.40534002 0.26436624 -0.30900612 129 146 169 255
-0.14591476 0.7364266 0.032107554 132 137 125 255
-0.11735567 0.9682629 0.110368095 43 55 21 255
0.3863708 0.27421686 0.084245 137 154 176 255
-0.13957028 0.104431905 0.107267305 90 97 108 255
0.3718942 0.2672012 0.07081276 127 143 165 255
0.41644102 0.2717901 -0.23838548 124 146 173 255
-0.22494105 0.88169646 0.1435811 29 26 0 255
0.1586536 0.19865961 0.13246211 115 132 157 255
-0.23493697 0.7434779 0.16610543 136 140 122 255
-0.21613659 0.8714533 0.14852737 76 73 19 255
-0.24888195 1.0026993 0.15865023 126 121 133 255
0.04406329 0.16465427 0.04844328 82 97 117 255
-0.1312933 0.87919426 0.047841247 35 49 27 255
-0.16351148 0.095884025 0.0649904 90 99 113 255
-0.09546305 0.12450205 0.08019855 53 41 49 255
-0.2057676 0.8696074 0.14055248 46 39 0 255
0.20172547 0.21656898 0.008382404 106 125 149 255
0.12503137 0.18852718 0.15289448 90 108 132 255
-0.01880383 0.9053405 0.022404103 202 186 166 255
0.27569747 0.23549893 -0.03170625 105 129 157 255
-0.24053796 0.8691315 0.1397588 85 73 61 255
-0.20010804 0.07610711 0.022405636 95 105 121 255
0.20788015 0.208276 -0.035805076 105 123 147 255
-0.2173174 0.8803743 0.14924423 146 141 102 255
-0.14100897 1.0035645 0.15131173 105 106 106 255
-0.036642153 0.99727553 0.10016124 87 94 53 255
-0.19100234 0.7324983 0.17349127 18 23 3 255
0.24412002 0.22627339 0.061455574 113 132 159 255
0.20223421 0.21119905 -0.04158281 100 119 142 255
0.3187015 0.25087985 0.0068713464 119 137 163 255
-0.087231524 0.18688938 0.07745401 36 31 43 255
0.3775798 0.2669523 0.07494981 83 101 124 255
0.37738404 0.26684937 0.075112306 82 99 120 255
0.013555253 0.15432416 -0.015796889 137 152 172 255
0.43124256 0.2854599 0.09934542 131 147 169 255
0.3803706 0.2681241 -0.06890006 88 108 132 255
-0.14323418 0.9951238 0.055473458 128 134 134 255
-0.23242043 0.5001981 0.078631386 26 37 19 255
0.107095525 0.16651244 -0.41340557 121 144 171 255
-0.07367683 0.9215095 0.084935024 10 17 2 255
-0.21006878 0.9685821 0.13645175 2 9 2 255
-0.24364129 0.7487237 0.15061511 80 82 31 255
-0.03508832 0.9393067 0.014138741 193 183 157 255
0.18314858 0.20689407 0.013397111 109 129 157 255
-0.19262537 0.66633403 0.111006856 4 13 2 255
-0.04198806 0.9437565 -0.013739705 52 54 13 255
-0.069805205 0.6093514 -0.117475614 41 50 40 255
-0.2276372 0.97142214 -0.045077503 124 107 103 255
0.018983148 0.15439412 0.09107812 86 106 128 255
-0.047968425 0.8891806 0.0560169 178 166 93 255
-0.047884893 0.88673353 0.05262007 180 188 190 255
-0.24622871 0.89671797 0.09921974 15 31 15 255
-0.09785611 1.0122336 0.016976293 69 76 49 255
-0.06935596 0.7580362 0.09002812 41 64 11 255
-0.040246453 0.84802914 0.16798584 58 79 13 255
-0.078233376 0.9576573 0.10880553 135 129 128 255
-0.12811245 0.76360875 0.021167843 51 65 24 255
-0.041826144 0.9402608 0.032470144 75 62 33 255
-0.0869167 0.6957027 -0.06458145 150 157 153 255
-0.12785457 0.86712927 0.0770812 130 137 111 255
-0.1277479 0.8677077 0.07804245 141 148 120 255
-0.11952415 0.5365331 0.1960716 145 156 126 255
-0.24127878 0.73512554 0.14312333 1 4 4 255
-0.26786807 0.91074556 0.15969913 70 62 57 255
-0.12749746 0.9552622 0.118589655 3 1 0 255
-0.11705387 1.0060598 0.05687593 46 52 44 255
-0.23663636 0.62466896 0.098261066 5 11 2 255
-0.2191053 0.72685766 0.121265344 132 136 101 255
-0.09815946 0.9660355 0.11623473 80 85 74 255
-0.09829954 0.9663915 0.11438842 94 97 82 255
-0.14732935 0.74306583 0.02987501 54 61 46 255
-0.19327205 0.85078865 0.15358616 103 98 67 255
-0.09568421 0.89109945 0.072004534 39 48 21 255
-0.13476293 0.90107006 0.07716674 96 99 87 255
-0.24646932 0.7860049 0.157083 31 22 3 255
-0.19427934 0.8804747 0.11903498 33 45 26 255
-0.07514607 0.8571807 0.08010837 43 61 9 255
0.32607666 0.25316834 -0.077128105 124 146 174 255
-0.07146519 0.9692889 0.02451161 99 98 96 255
-0.11743407 0.75899094 0.034309536 144 157 127 255
-0.114002086 1.0034043 0.13844329 42 55 20 255
-0.051093504 1.0016226 0.115042925 37 47 11 255
-0.09753474 1.0016667 -0.025957108 171 175 174 255
-0.048125565 0.936852 0.020692876 70 61 22 255
0.44272745 0.29730898 -0.04790005 115 135 165 255
-0.08891638 0.8637 0.040992692 127 130 89 255
-0.06917209 0.28781724 -0.005423969 117 120 155 255
-0.16680914 0.79445356 0.056332465 58 62 62 255
-0.11622216 0.6451525 0.08903962 145 157 155 255
-0.10207642 0.81632847 0.038162153 32 43 5 255
-0.22522214 0.94310945 0.104079 72 80 66 255
-0.2789036 0.99304855 0.15721045 147 143 143 255
-0.06300102 0.81860024 0.1304315 123 141 147 255
-0.2291881 0.8944122 0.11435561 36 43 34 255
-0.2307876 0.892386 0.10792018 41 44 39 255
-0.27766937 0.5905284 0.02038355 10 18 3 255
-0.19042951 0.98902154 0.1429855 41 35 20 255
-0.09397723 0.9622812 0.09387817 43 41 27 255
-0.1983742 0.76946485 0.13649158 91 103 72 255
-0.2674654 0.77729106 0.05841162 6 2 0 255
-0.087065965 0.97193724 0.07756079 19 30 2 255
-0.28410286 0.8965492 0.05083574 49 45 48 255
-0.17722042 0.9979248 0.109715 70 67 73 255
-0.25747892 0.47167596 0.05341363 133 139 138 255
-0.20412618 0.8720306 0.13984507 111 106 74 255
-0.12484872 0.8816457 0.053379204 84 92 68 255
0.10375068 0.1842911 0.060815714 96 113 135 255
-0.2929835 0.7770504 0.066290356 10 12 13 255
-0.18456995 0.7390711 0.1200092 128 139 97 255
-0.1501741 0.9935307 0.12568402 62 64 64 255
-0.04947026 0.8741523 0.051840696 62 54 20 255
-0.11305585 0.43575516 0.009527099 123 129 154 255
-0.29212928 0.98988855 0.07612589 106 112 119 255
-0.26366034 1.0075518 0.13739605 175 180 189 255
-0.22378378 0.50936294 0.08063808 16 27 11 255
-0.26269764 0.639005 0.06758747 0 2 0 255
-0.056376867 0.9285832 0.005028656 195 188 163 255
0.117055625 0.18966077 0.079649754 106 125 148 255
0.4433932 0.2889473 -0.03827892 123 142 169 255
-0.053002737 0.89970356 0.05327815 193 193 180 255
-0.17419599 0.98781174 0.121260345 27 35 12 255
0.41340053 0.2764133 -0.025134929 99 119 143 255
-0.23524292 0.7173319 0.10373015 2 2 0 255
-0.12924442 0.71988934 0.028797725 42 49 6 255
-0.08823221 0.9844218 0.08519508 28 38 1 255
0.2586221 0.22628379 -0.05066703 94 114 141 255
-0.23734249 0.7360219 0.120461434 45 50 24 255
-0.13576365 0.92738605 0.12817155 32 46 18 255
-0.28451228 0.7746485 0.07200322 1 2 4 255
-0.18299305 0.35021234 0.042037513 124 130 149 255
-0.014569861 0.9415496 0.03824357 118 101 74 255
-0.13795406 0.75856453 0.023826227 30 40 33 255
0.41722143 0.28103462 0.10444655 123 143 169 255
-0.049209017 0.90023047 0.057338398 55 51 32 255
0.035605554 0.15974987 0.03643278 92 109 132 255
0.490318 0.29833797 -0.18792072 107 127 155 255
0.49001777 0.2990954 -0.18779348 106 126 153 255
-0.14696346 0.7594636 0.031711884 148 159 155 255
-0.192331 0.97470176 0.14411698 20 32 6 255
-0.19424075 0.7348251 0.17211743 70 69 46 255
-0.057327475 0.8952714 0.044452302 53 52 43 255
0.16257413 0.19120659 -0.3668283 121 143 169 255
-0.12996194 0.10901935 0.101900466 85 88 97 255
-0.05182468 0.8764741 0.040434893 78 81 65 255
-0.13168308 0.8922883 0.10878684 19 34 12 255
-0.20456083 0.53446823 0.12622847 13 21 5 255
-0.05078893 0.975918 0.09278837 20 34 9 255
-0.08427357 0.9861734 0.077727504 16 26 0 255
-0.24335176 0.9717304 0.10739049 49 44 43 255
-0.16065845 0.9391519 0.13350756 94 89 89 255
-0.17720345 0.113135934 0.092229314 83 91 101 255
-0.150854 0.9338987 0.13772018 105 101 104 255
-0.27045885 0.7694752 0.05756268 30 29 24 255
-0.062074903 0.8891981 0.044329472 53 43 10 255
0.41001096 0.28997016 0.11635187 61 81 107 255
-0.21045294 0.87393385 0.14006929 94 89 51 255
-0.26186478 1.0056845 0.14630401 140 121 133 255
0.0518409 0.16559017 0.15625098 83 100 121 255
-0.326497 0.9725784 0.029453011 113 119 120 255
-0.29961294 0.60507214 -0.003140957 3 6 1 255
-0.23760389 0.92709184 0.12197361 9 20 0 255
-0.2377054 0.9345097 0.07513338 62 69 55 255
-0.10326912 0.9535912 0.13018602 129 123 124 255
-0.24604352 0.7493694 0.15438086 50 48 1 255
-0.16958785 0.649193 0.14493608 28 43 2 255
-0.2443706 0.78857094 0.14121409 75 66 33 255
-0.06471398 0.90045303 0.05835119 27 24 8 255
-0.08723022 0.9411779 0.1320784 40 36 30 255
-0.007574301 0.8916317 0.024774559 79 61 30 255
-0.17575693 0.7245369 0.20219578 135 129 96 255
0.24784946 0.22029194 -0.14596383 117 142 169 255
-0.13887674 0.74313164 0.026686534 142 150 148 255
-0.1768809 0.3482046 0.048566014 82 81 115 255
0.37540132 0.2618256 -0.12111095 115 135 160 255
-0.20941903 0.8539923 0.1551642 104 95 65 255
-0.17708044 0.08813824 0.054846264 80 89 101 255
0.033614796 0.14632398 0.07360462 88 104 126 255
0.026202327 0.15519144 0.12852499 91 108 128 255
0.026115766 0.15453604 0.12814489 90 106 128 255
-0.15786476 0.7093259 0.016369646 50 58 35 255
-0.0921344 0.97328246 0.07424552 72 80 58 255
-0.092097655 0.97320116 0.07436754 71 79 59 255
-0.071775265 0.8884477 0.030736377 83 84 60 255
-0.054230053 0.9044751 0.055231646 48 44 13 255
-0.24500012 0.95960283 -0.089063145 172 168 159 255
-0.39317715 0.010702083 -0.3898066 53 61 69 255
-0.20366877 0.7703319 0.14013158 84 100 61 255
-0.13987704 0.70204127 0.024395598 13 20 9 255
-0.17342532 0.73525107 0.029132726 95 104 90 255
-0.12706728 0.8323367 0.04090437 20 32 2 255
-0.18830045 0.72679865 0.18107592 46 41 11 255
-0.2613127 0.63239497 0.05728028 22 27 21 255
0.3471595 0.25524235 -0.086923 116 136 161 255
0.28097004 0.23876494 0.051478162 101 120 145 255
-0.08555176 1.0185999 0.07995785 137 143 146 255
-0.10210001 0.9397512 0.13916086 105 97 101 255
-0.16254753 0.9919187 0.10399392 122 122 117 255
-0.16341291 0.9905604 0.098946884 116 115 110 255
-0.24842922 0.75168073 0.15173629 81 81 55 255
-0.043413643 0.9010791 0.0732623 70 61 32 255
-0.2931472 0.9717306 0.12315291 105 102 96 255
-0.08600623 0.5816529 -0.12173208 77 85 65 255
-0.14432329 0.73240703 0.0316583 14 22 1 255
-0.23829636 0.92977864 0.07266744 35 37 31 255
-0.085573755 0.20613538 0.09146923 38 35 47 255
-0.20209114 0.7640918 0.15857781 68 78 41 255
-0.25141385 0.79756725 0.15615562 59 49 21 255
0.22639924 0.22391798 0.08706205 90 110 133 255
-0.018752864 0.90165305 0.026812209 75 58 23 255
-0.13314849 0.54700214 0.1908452 40 49 26 255
0.26195952 0.23357351 0.10260705 69 88 112 255
-0.10252733 0.383132 0.05657107 56 57 78 255
-0.16893631 0.7404413 0.1667675 145 160 126 255
0.44036743 0.2756576 -0.43262112 111 132 161 255
-0.15616389 0.9919754 0.11205861 136 135 138 255
0.45203295 0.28733984 -0.13117024 118 138 165 255
0.42663196 0.28388578 0.10996178 114 133 158 255
-0.061536673 0.96331096 0.09551696 23 41 6 255
-0.14044222 1.0081608 0.16508207 157 159 161 255
-0.26617625 0.8992899 0.16155411 30 5 30 255
-0.095464185 1.0069635 0.10097929 125 124 128 255
-0.1919158 0.07604098 -0.005535409 85 96 114 255
-0.31336975 0.043675553 -0.24146838 105 116 131 255
-0.108793505 1.0093664 0.13076565 103 112 116 255
0.40720138 0.2775539 -0.011979953 140 160 188 255
-0.10920151 0.9925832 0.11546595 83 91 66 255
-0.19384952 0.72324824 0.1741283 80 75 48 255
-0.13414067 0.6718081 0.05567776 18 48 1 255
-0.04328196 1.013496 0.06085856 141 147 147 255
-0.25493172 0.526092 0.03229486 136 141 152 255
0.3703734 0.26603916 -0.011970032 100 118 144 255
-0.07820993 0.87094045 0.045955263 35 59 9 255
-0.07875472 0.60213053 -0.119468816 50 57 36 255
-0.07238274 1.0262941 0.09170322 152 162 168 255
-0.21485986 0.9841673 0.14761555 86 80 80 255
-0.27290148 0.7624787 0.06875801 1 1 2 255
0.02420209 0.15247177 -0.07889379 114 130 149 255
-0.14491141 0.7745764 0.03716014 1 7 0 255
-0.113526754 0.6621933 0.08632047 145 152 160 255
-0.2827389 0.80472535 0.09919794 1 1 3 255
-0.28170013 0.9256655 0.1378218 15 5 10 255
-0.06648523 0.22480725 0.03391494 72 74 87 255
-0.1603926 0.9889368 0.07897226 145 145 155 255
-0.15122187 0.88010275 0.08078528 0 5 0 255
-0.2607208 0.4764892 0.031596314 137 142 145 255
0.28583252 0.24285686 0.10165792 103 122 147 255
-0.20794556 0.9358232 0.09197606 52 52 52 255
-0.19058199 0.8701168 0.014023384 7 12 3 255
-0.1281018 0.9681653 0.10611629 33 40 20 255
-0.23581603 0.7894596 0.09736404 2 2 1 255
-0.15130956 0.72583073 0.013041908 116 122 114 255
-0.098564975 0.8554905 0.044667006 112 114 89 255
-0.1793086 0.85834485 0.12377367 54 48 7 255
-0.2454119 0.9420948 0.09091648 8 11 11 255
-0.09742992 0.97641754 0.06226314 30 42 8 255
-0.111164905 0.7542596 0.03474561 27 47 5 255
-0.050723687 0.8215245 0.13175938 25 47 2 255
-0.30553758 0.7935101 0.056706667 40 38 29 255
-0.30360234 0.7964311 0.06209848 43 42 32 255
0.1523623 0.18989326 -0.23677672 114 136 165 255
-0.25887632 0.9058818 0.07173348 50 53 38 255
-0.17407185 0.40142003 0.05898991 79 84 105 255
-0.13499995 0.2947635 0.040716354 32 38 48 255
-0.05224615 0.3147776 0.04905235 102 106 145 255
-0.22826561 0.8557173 0.1560286 2 2 2 255
-0.20817105 0.67157835 0.1494792 46 59 33 255
-0.07526317 0.9861452 0.09244048 46 54 15 255
-0.14178483 0.9809642 0.11596937 37 45 16 255
-0.22930056 0.8707826 0.14799938 36 25 2 255
-0.26660985 0.54375255 0.058050245 142 146 151 255
-0.08726192 0.9509411 0.13109675 6 16 4 255
-0.10150542 0.9656035 0.12810357 26 33 14 255
-0.1050769 0.36079735 0.041269124 64 65 85 255
-0.09088678 0.9784007 0.11257972 40 48 28 255
-0.09088678 0.9784007 0.11257972 40 48 28 255
-0.16672955 0.2456947 0.044295408 106 118 136 255
-0.27036768 0.99730057 0.15069884 132 119 133 255
-0.056280408 0.88465524 0.042450696 65 55 21 255
-0.07246313 0.9561314 0.07450178 34 47 20 255
-0.07246313 0.9561314 0.07450178 34 47 20 255
-0.091902815 0.74586624 0.044581443 57 73 47 255
-0.12782845 0.8246623 0.04155347 0 13 0 255
-0.2774811 0.91107374 0.15157618 85 86 85 255
-0.12556396 0.669774 -0.0277527 160 168 154 255
-0.19592196 0.8433044 -0.047228344 190 195 187 255
-0.1956857 0.84358346 -0.04638898 190 195 186 255
-0.2501118 0.8869754 0.09882588 1 2 0 255
-0.12578729 0.6495162 0.0053587537 157 167 160 255
-0.12601885 0.6478659 0.0028370477 156 166 157 255
-0.24239336 0.978508 0.11802809 70 69 64 255
-0.045947466 0.80094635 0.13337609 62 78 66 255
-0.09391371 1.0194798 0.08979475 132 142 144 255
0.24968687 0.23091462 0.030198948 95 115 140 255
-0.2767014 0.5396868 0.04494834 131 141 153 255
-0.30566975 0.6118338 -0.0012632047 8 13 2 255
-0.27192205 0.9051402 0.1656814 75 63 71 255
-0.05889555 0.78718203 0.1114243 60 77 35 255
-0.059045706 0.79376847 0.1242784 68 88 38 255
-0.2047696 0.072357975 -0.06661811 94 104 121 255
-0.12210596 0.7645203 0.041081805 48 60 8 255
-0.2211965 0.88052523 0.13869649 57 53 15 255
-0.17479034 0.94800836 0.11996951 7 9 5 255
-0.26883355 0.9498499 0.13395879 8 22 8 255
-0.14220457 0.75638884 0.02343353 150 157 156 255
-0.13894375 0.7119509 0.022493944 126 129 100 255
-0.033467546 1.0012969 0.105966836 70 71 47 255
0.21895091 0.2171022 -0.08036251 105 125 152 255
-0.23964134 0.92612654 0.095253594 64 48 56 255
-0.29437506 0.6160006 0.0021784701 34 38 27 255
-0.109712236 1.0125782 0.1010392 136 142 144 255
-0.26140052 0.9105237 0.15823719 56 40 39 255
-0.050164383 0.94378227 0.022954928 34 34 0 255
-0.17373112 0.3501163 0.023765292 26 33 50 255
-0.056208618 0.8131996 0.134137 103 118 112 255
-0.20282339 0.7040131 0.16085048 75 73 45 255
-0.14132273 0.52928144 0.17351347 49 57 48 255
-0.026791306 0.21475838 0.07267674 102 97 123 255
-0.21321766 0.86096823 0.14665876 47 43 6 255
-0.22590971 0.9832296 0.1256856 75 71 72 255
-0.2254928 0.9831837 0.12576178 69 66 62 255
-0.04205492 0.9448991 0.024417264 89 75 50 255
-0.241485 0.77548194 0.13300328 43 36 25 255
-0.2603462 1.0037825 0.15049836 156 139 159 255
-0.14700891 1.01604 0.0047208834 115 120 101 255
-0.19826797 1.0037681 0.1291188 107 104 105 255
-0.17720088 0.7648581 0.020734208 161 168 164 255
-0.19125533 1.0022432 0.14585683 131 128 136 255
-0.29859555 0.88737804 0.05398431 9 2 11 255
-0.12923476 0.6961619 0.041313197 14 34 5 255
-0.16553867 0.9645732 0.09799203 12 16 7 255
-0.30872592 0.8270458 0.06983904 1 1 3 255
-0.21005827 0.07962392 0.012997745 100 110 125 255
-0.07390033 0.9747506 0.06622068 101 109 75 255
-0.14518431 0.98107696 0.11567061 37 42 26 255
0.35003716 0.2608917 0.06506288 115 135 161 255
-0.066041164 0.28865644 0.07772732 81 83 98 255
-0.15070644 0.36624703 0.056428924 0 10 26 255
-0.18748406 0.08048049 0.05297598 82 92 106 255
-0.12346839 0.8285331 0.03599505 89 95 77 255
-0.24838692 0.794537 0.15070361 41 31 4 255
-0.038673356 1.0238496 0.012467369 142 144 138 255
-0.27558443 0.90949243 0.16162188 59 55 53 255
-0.1378877 0.48740262 0.043585792 17 16 48 255
0.024066418 0.15084685 -0.08972877 112 130 153 255
-0.11533727 0.9880708 0.13092689 39 53 4 255
0.44987994 0.2714873 -0.4433957 134 157 185 255
-0.2691708 0.88529414 0.14817266 44 33 43 255
-0.17790486 0.71990365 0.10861731 105 123 76 255
-0.05574821 0.8229821 0.13446721 89 108 82 255
0.07597996 0.17752728 0.05545103 105 122 144 255
-0.1839469 0.81855464 0.108693 50 64 44 255
-0.0616127 0.9049912 0.060330924 47 42 24 255
-0.30016354 0.91078174 0.07325472 51 34 43 255
-0.1799196 0.0863479 0.06388662 80 89 102 255
-0.17981058 0.08692949 0.06443299 79 89 102 255
-0.38572043 0.012466071 -0.36897543 110 119 130 255
-0.118882105 0.98137224 0.13043249 45 58 7 255
-0.14206676 0.959744 0.101426825 5 6 3 255
0.34163213 0.2564309 -0.039389506 115 135 162 255
0.34147856 0.2565874 -0.038960595 115 134 161 255
-0.12312129 0.64262575 0.027958091 102 114 92 255
0.41762903 0.26811722 -0.34325108 105 126 155 255
-0.17495659 0.7178961 0.20000575 112 104 63 255
-0.23274016 0.06369315 -0.15580933 99 112 131 255
-0.058086187 0.78757215 0.121091 148 163 154 255
-0.23853245 0.89378154 0.16128655 127 106 124 255
-0.12779537 1.0121871 0.08550028 138 140 150 255
-0.07330935 0.9761027 0.059928235 36 44 21 255
-0.11734614 0.7378995 0.055221777 22 35 1 255
-0.21278997 0.7650522 0.086548634 37 42 37 255
-0.23517367 0.8688218 0.14721331 124 116 100 255
0.010788836 0.15422538 0.11802529 84 102 124 255
-0.24026977 0.39524406 0.01310954 40 48 35 255
-0.23566243 0.7417675 0.16341792 140 142 123 255
-0.27397534 0.8812494 0.14375205 10 1 11 255
-0.2507335 0.9089684 0.08568316 4 5 2 255
-0.26294976 0.052428633 -0.18343353 105 115 132 255
0.359573 0.26341492 0.021193804 114 132 160 255
-0.11628489 0.7221104 0.040385142 51 60 35 255
-0.1354708 0.9624591 0.11033674 27 22 16 255
0.46683317 0.29214215 0.103387065 69 88 112 255
-0.07092873 0.3631951 0.023114538 115 118 156 255
-0.060585096 0.86276495 0.04542474 192 195 196 255
-0.08742187 0.9673017 0.048251074 56 65 26 255
-0.18240467 0.8561771 0.109913334 37 33 0 255
-0.19366771 0.71830136 0.05373253 68 77 64 255
-0.2170611 0.8807431 0.15049842 133 130 94 255
-0.23812631 1.0014831 0.15033917 136 135 145 255
-0.17085719 0.5935898 0.15895888 35 51 4 255
0.43646577 0.28236014 -0.21950021 122 140 168 255
-0.26804385 0.63350564 0.062360514 26 33 21 255
-0.1835443 0.8435839 0.14315937 107 107 76 255
-0.045850743 0.945846 0.031045701 182 170 144 255
-0.19579302 0.9943169 0.14705005 27 35 12 255
-0.021752886 0.24269056 0.015627384 111 122 148 255
-0.07569846 0.9893422 0.098821186 35 43 3 255
-0.2785972 0.97264767 0.140268 20 29 6 255
-0.22021514 0.8616462 0.15719 106 104 79 255
-0.19436876 0.75618523 0.0607499 4 18 1 255
-0.10836659 0.9349962 0.14516279 50 46 56 255
-0.20173052 0.8758838 0.13661765 59 53 5 255
-0.16717307 0.9605142 0.1261051 47 56 47 255
0.38102293 0.26799628 0.006973986 121 140 167 255
-0.23895296 0.74546427 0.11747206 35 37 25 255
-0.14170597 0.6353963 0.17229976 104 116 85 255
-0.24962656 0.7799918 0.13447464 40 30 6 255
-0.27333558 0.8975888 0.16455396 85 70 83 255
0.36921772 0.26409134 -0.0075960387 112 130 157 255
0.17279233 0.20522141 0.13033375 109 125 147 255
-0.047769047 1.0231355 -0.011768998 120 116 108 255
0.44433418 0.2964898 0.113438316 134 151 179 255
-0.19622834 0.7106255 0.0297252 63 77 62 255
-0.18872903 0.090081066 0.05445916 94 104 117 255
-0.041219044 0.93515635 0.05062856 59 41 2 255
-0.17691064 0.088784456 0.05507709 79 88 102 255
-0.14605519 0.94981277 0.11570984 102 95 103 255
-0.26597047 0.99616367 0.1685192 120 110 121 255
-0.08101135 0.97653997 0.0809156 31 42 0 255
-0.25389263 0.9925993 0.16265658 38 42 33 255
-0.37853137 0.9632073 -0.08596759 86 96 86 255
0.46386474 0.29138285 -0.076237485 124 142 170 255
-0.2189841 0.8652409 0.15446597 154 149 114 255
-0.25073817 0.794721 0.1398953 2 2 0 255
0.1803937 0.20006141 -0.040515296 112 132 158 255
-0.14672704 0.10727189 0.16871727 74 83 97 255
-0.060709834 0.89670926 0.045139667 192 186 171 255
-0.24973975 0.0621526 -0.17080119 103 114 130 255
-0.21540157 0.068960175 -0.098484606 112 123 140 255
-0.24387223 0.7426449 0.16552415 20 16 0 255
-0.24387223 0.7426449 0.16552415 20 16 0 255
-0.24387223 0.7426449 0.16552415 20 16 0 255
-0.2185116 0.71364194 0.11783261 4 9 1 255
-0.09032102 0.16917315 0.080376565 47 39 53 255
-0.22907236 0.75463617 0.09867013 5 4 0 255
-0.30509785 0.04201607 -0.17560226 103 114 129 255
0.2165952 0.2185845 0.15534425 137 157 182 255
-0.15432775 0.9409095 0.14062268 98 92 96 255
-0.20872602 0.85482347 0.14786051 93 90 57 255
-0.13218552 0.9605585 0.107303336 50 48 43 255
0.21984285 0.2017707 -0.150716 116 137 161 255
-0.07274026 0.9741134 0.074422404 30 46 2 255
0.4582925 0.28999522 0.046324078 122 140 169 255
-0.24553479 0.78081095 0.14576624 89 80 56 255
-0.11195413 0.9859144 0.14071225 73 86 47 255
-0.14752677 0.94276613 0.13417618 116 111 109 255
-0.14790818 0.94349915 0.13578407 113 108 108 255
-0.29899663 0.8398591 0.084970474 2 1 3 255
-0.24612613 0.92153347 0.10523789 49 54 42 255
-0.19206662 0.82868266 0.15615484 162 168 152 255
-0.21368414 0.86434275 0.14557533 65 62 19 255
-0.08638025 0.85815954 0.059747696 46 60 0 255
-0.19142264 0.9886541 0.14709869 50 45 26 255
-0.2133461 0.73003155 0.11358344 18 23 3 255
0.15070719 0.18655896 -0.29258913 122 143 170 255
-0.21870688 0.065074824 -0.036264636 104 113 126 255
-0.24353404 0.7317001 0.09085241 3 4 1 255
-0.3081241 0.751181 0.033537794 25 26 24 255
-0.18897656 0.99512595 0.15550214 71 70 59 255
-0.23823835 0.06796723 -0.1818355 98 108 126 255
-0.12821876 0.8202414 0.058590233 17 36 13 255
-0.24209514 0.74713916 0.17821449 94 87 70 255
-0.29876605 0.042557105 -0.26229128 119 128 144 255
-0.163305 0.6823118 0.052684534 77 99 55 255
0.28357163 0.22827058 -0.2788639 127 151 180 255
-0.03758088 0.94566786 0.016059961 83 72 45 255
0.2664106 0.22637594 -0.20110239 108 132 160 255
-0.2094349 0.06861396 -0.019112542 98 107 123 255
-0.24765918 0.9264816 0.10955359 16 21 15 255
0.4212031 0.27420416 -0.3100888 136 157 186 255
-0.08867893 0.20134255 0.08226724 39 35 49 255
-0.14478981 0.09572906 0.1586895 86 96 109 255
-0.0129814 0.14267604 0.11798401 80 96 115 255
0.24744858 0.22924586 0.10922074 99 119 142 255
-0.20035021 0.8436038 0.16450861 93 92 44 255
0.01744868 0.1526128 0.08754016 84 101 122 255
-0.244691 0.8960007 0.16446474 124 122 105 255
-0.1678411 0.74017626 0.16296698 48 66 41 255
-0.23294073 0.8715314 0.14029175 56 46 23 255
-0.0725149 0.8615661 -0.00048088864 174 179 168 255
0.31298772 0.24868794 0.08128754 117 134 154 255
-0.29003552 0.04490395 -0.19368394 103 113 128 255
0.29162824 0.24330275 0.05008779 115 134 155 255
0.29128945 0.24397561 0.050714288 115 134 154 255
-0.23327866 0.8840836 0.16312851 95 81 81 255
-0.21364608 0.77506965 0.13522834 31 32 1 255
0.0833792 0.1780554 0.108376384 91 110 132 255
0.366902 0.26586303 0.085967936 95 112 137 255
0.3028704 0.24531078 0.05702676 110 126 150 255
0.30278116 0.24527079 0.057071988 109 126 148 255
-0.2646451 0.8992841 0.15925859 60 34 63 255
-0.21760333 0.77509385 0.12798554 71 69 41 255
-0.119149014 0.8561583 0.065923944 1 9 0 255
-0.13698724 0.587002 0.19045673 124 134 109 255
0.35770285 0.2596727 0.116675004 72 88 107 255
0.046615705 0.14564748 -0.36163878 115 131 152 255
0.4336093 0.28314632 -0.07587556 128 147 171 255
0.4336093 0.28314632 -0.07587556 128 147 171 255
0.25841105 0.22717012 -0.0829921 107 131 159 255
-0.26877862 0.552685 0.0659343 40 45 50 255
0.4411011 0.27902362 -0.10539937 131 151 175 255
-0.13777833 0.6209487 0.17376377 33 33 2 255
-0.107788034 0.9533756 0.1253433 100 97 100 255
-0.14083266 0.61102706 0.12986438 92 115 84 255
0.19164866 0.21204568 0.007358149 119 139 165 255
-0.1733809 0.741641 0.1538389 65 86 48 255
-0.24380967 0.061963674 -0.17754489 96 107 125 255
-0.051781952 0.8187842 0.13677615 85 103 68 255
-0.11465188 0.9936017 0.1312431 74 87 36 255
-0.11445152 0.99388963 0.13246042 76 89 38 255
-9.262125e-05 0.1511661 -0.021371786 94 110 129 255
-0.25610763 0.9018157 0.15682621 89 76 83 255
0.35088462 0.24034931 -0.24192496 129 150 178 255
0.19508703 0.17139804 -0.43479043 117 138 159 255
-0.063069135 0.9788654 0.08504208 57 58 37 255
-0.23830001 0.8379829 0.1621725 5 4 3 255
-0.30466607 0.97608775 0.07987891 148 144 148 255
0.008752057 0.18280841 0.048249595 98 119 144 255
-0.27988425 0.89784825 0.16035865 48 31 43 255
-0.26531285 0.48715806 0.041597154 129 135 144 255
-0.22815803 0.99669665 0.15231177 133 130 138 255
-0.1738562 0.6971413 0.059873343 84 101 61 255
0.28483558 0.1747149 -0.4187767 117 136 161 255
0.26744515 0.22199051 -0.3599186 116 134 160 255
-0.09171071 0.883133 0.015041734 150 148 149 255
-0.07800018 1.0253015 -0.011187463 161 165 158 255
-0.11666157 0.6339087 0.10827641 15 45 1 255
-0.097902514 0.29011935 0.021079173 39 45 64 255
0.17348513 0.20316298 0.05678393 113 131 157 255
0.21311663 0.22753471 -0.35206965 126 147 176 255
0.18540572 0.19246072 -0.39488414 123 145 172 255
-0.278117 0.8260953 0.10964711 1 1 2 255
-0.21004516 0.75503725 0.08985609 1 7 1 255
-0.20795605 0.7323616 0.14214225 8 18 3 255
-0.21555547 0.71528476 0.1160897 3 7 1 255
-0.3503014 0.920295 0.01114606 19 4 20 255
-0.0975036 0.83569056 0.013908905 17 20 6 255
-0.23796493 0.7273988 0.10949539 35 38 21 255
-0.07396937 1.0192913 0.0053781983 119 121 120 255
-0.07456809 1.0151299 -0.012346169 128 128 126 255
-0.16468897 0.98199505 0.112736985 23 26 19 255
-0.35778183 0.9530641 -0.06977688 99 111 118 255
-0.27018514 0.5393567 0.061306793 34 37 36 255
-0.1287274 0.9927437 0.14951468 42 53 18 255
-0.276252 0.89171857 0.16130398 73 53 73 255
-0.27510098 0.89376795 0.16526558 76 56 75 255
0.22172251 0.21980385 -0.0515134 100 119 145 255
-0.055987205 1.0147178 0.11032083 107 111 102 255
-0.12370805 0.9190879 0.114234254 11 17 9 255
-0.097059086 0.9722143 0.06884096 85 91 79 255
-0.05326599 1.001663 0.11926082 19 31 4 255
-0.094094105 0.9286792 0.1484457 114 114 113 255
-0.13336037 0.681805 0.046724617 5 22 1 255
-0.08758281 0.8803842 0.06409544 146 150 139 255
-0.080011494 1.0163143 0.09463561 125 132 133 255
-0.22242768 0.9348612 0.117195636 11 18 8 255
-0.2807277 0.9231263 0.09432804 44 39 43 255
-0.23915367 0.94581485 0.09369875 76 73 77 255
-0.20409574 0.72398454 0.15332563 3 8 0 255
-0.12089079 0.9922721 0.13991018 20 40 1 255
0.07240916 0.17024629 -0.17888945 115 134 159 255
-0.24672112 0.9676992 0.11203842 17 14 7 255
-0.07443433 1.0243344 0.06118342 157 161 164 255
-0.23982956 0.8955143 0.14332357 65 49 59 255
-0.28752336 0.91056985 0.081437565 9 2 16 255
-0.18724422 1.005872 0.120073296 157 151 165 255
-0.19884115 0.99015945 0.15020604 55 64 30 255
-0.24224453 0.98929 0.120905645 116 111 117 255
-0.2918331 0.91838723 0.07966447 10 1 6 255
-0.056241084 0.8844708 0.04190834 67 55 22 255
-0.25545862 0.7461661 0.1576959 5 3 0 255
-0.23637353 0.9043291 0.12087126 20 29 19 255
0.23229468 0.22397944 0.07604372 99 117 143 255
-0.12756632 0.7555784 0.03523286 152 160 151 255
0.4602868 0.2865462 -0.057033848 121 140 169 255
0.45494094 0.29109582 -0.20926264 93 113 138 255
-0.29011622 0.5694924 -0.0040778075 27 31 10 255
-0.20332089 0.8302068 0.15944882 112 113 82 255
-0.05761889 0.9347851 0.061840374 78 78 63 255
-0.25243127 0.87458336 0.1600551 9 2 9 255
-0.26697633 0.98137176 0.028763542 177 169 175 255
-0.06891969 0.89154047 0.046592128 21 18 6 255
-0.23022588 0.9363458 0.08314327 78 86 71 255
-0.051632322 0.7831657 0.11190731 47 66 59 255
-0.09767895 0.98005444 0.066130884 36 49 7 255
-0.16153167 1.0530047 0.039968986 126 128 134 255
-0.22915237 0.07811797 0.0019480335 91 103 118 255
0.2947469 0.24749231 0.094053656 134 149 168 255
-0.30126926 0.8317688 0.07986691 17 17 21 255
-0.21608388 0.81266195 0.1427004 64 58 19 255
-0.13163806 1.0106608 0.08462532 120 122 132 255
-0.15379272 0.96422213 0.07184468 102 102 97 255
-0.24092044 0.9214667 0.11106526 48 51 40 255
0.24504143 0.23515978 0.09878472 98 119 143 255
-0.27238917 0.9421823 0.10226163 0 1 3 255
-0.22948657 0.8823556 0.15224008 32 25 4 255
-0.1608101 0.60894126 0.16822505 42 57 11 255
-0.21608944 0.8611657 0.14746818 137 133 102 255
-0.19385962 0.96134436 0.11772819 59 63 50 255
-0.16099559 0.7048718 0.10409402 86 104 45 255
-0.27587745 0.905048 0.16876557 82 67 73 255
-0.27623707 0.9046008 0.16715488 83 68 74 255
-0.18948466 0.086713545 -0.0028107548 97 107 124 255
-0.32319114 0.78924906 0.042024203 38 38 38 255
-0.22174305 0.9784265 0.12701982 78 63 70 255
-0.2843009 0.97084326 0.13537964 83 93 73 255
-0.17297406 0.7053113 0.059649553 0 6 0 255
-0.2440157 0.86300725 0.14242771 92 84 62 255
-0.12649114 0.68686616 0.046751447 60 75 48 255
-0.33404493 0.96402305 0.002162741 165 167 171 255
-0.16026051 0.08136927 0.01673694 84 94 109 255
-0.158669 0.7570594 0.016738648 151 159 149 255
-0.19337028 0.85522485 0.1367209 59 53 17 255
-0.26725844 0.7637952 0.051912136 4 4 0 255
-0.124083005 0.7925715 0.04630968 8 25 0 255
-0.15187094 0.9156434 0.13047326 33 45 16 255
-0.28106135 0.97712344 0.14332128 39 47 21 255
-0.18631323 0.9668438 0.1313873 31 43 9 255
0.058654763 0.166168 0.09865942 99 115 137 255
-0.07921679 0.2803372 0.024042087 96 100 129 255
-0.17449789 0.74158555 0.17462537 20 34 9 255
-0.22029732 0.84396404 0.15011807 44 40 21 255
-0.26401153 0.98501235 0.16784963 40 29 23 255
-0.30237144 0.9084064 0.06707512 49 33 40 255
-0.075525604 1.0194945 0.091197744 124 131 134 255
-0.23922352 0.892427 0.12674285 32 20 16 255
-0.094945855 0.94371736 0.13699956 118 109 114 255
-0.04762385 0.13425003 0.1096841 55 68 82 255
-0.1093648 0.6103173 -0.049021486 166 172 170 255
0.48481777 0.29282907 -0.27838105 97 115 134 255
-0.2178305 0.799754 0.1326854 51 41 2 255
0.4063136 0.27755174 0.11535163 112 130 156 255
0.23386267 0.22092064 -0.06240179 127 149 173 255
-0.24558282 0.75048655 0.1833381 112 106 75 255
0.17863852 0.20623963 0.047870874 109 127 153 255
-0.12463983 0.64669454 0.19949882 52 43 10 255
-0.25133908 0.06869662 -0.0667799 94 105 121 255
-0.24619848 0.54203105 0.12990354 34 40 35 255
-0.17240866 0.6379503 0.118272126 43 61 13 255
-0.18647383 0.83510745 0.13359322 125 126 100 255
-0.09373284 0.93650633 0.14005615 99 93 96 255
-0.16512245 0.6728154 0.008050509 4 12 8 255
-0.09359846 0.9799789 0.060276944 62 71 40 255
0.34442002 0.25149786 -0.2367072 127 148 175 255
0.34503266 0.25005332 -0.23866563 126 147 175 255
-0.16485685 0.07346154 0.06368073 80 88 101 255
0.4541294 0.29484984 0.040359963 117 136 162 255
-0.14580347 0.10034452 0.07037947 90 96 108 255
-0.14583491 0.09898596 0.06918847 89 96 108 255
-0.28095612 0.90911275 0.15862118 43 41 41 255
-0.24943873 0.8508409 0.13813898 4 3 0 255
-0.19568592 1.0075394 0.16195445 95 101 72 255
-0.24473366 0.9762095 0.10102403 100 98 101 255
-0.08187292 0.680917 -0.060485132 107 121 134 255
-0.08205011 0.67900133 -0.06979696 106 120 125 255
-0.21885028 0.9029995 0.12693971 36 28 24 255
-0.30569047 0.707499 0.02372539 50 50 40 255
-0.25205463 0.80110115 0.15503235 94 87 69 255
-0.12021748 1.0184934 0.087566905 143 148 148 255
-0.18652104 0.7624426 0.075830236 46 62 36 255
-0.15938768 1.0508184 0.016788254 153 160 164 255
-0.24172138 0.7241593 0.109773785 3 4 0 255
-0.21726091 0.8178369 0.14312981 39 32 3 255
0.100883715 0.19241773 -0.17264774 116 134 161 255
-0.0182487 0.9013828 0.025311755 75 56 29 255
-0.25371966 0.74992085 0.17028505 95 93 60 255
-0.12570527 0.8753453 0.0529465 71 81 62 255
-0.14823657 0.95176107 0.11429551 76 68 78 255
-0.107501864 0.9794946 0.13640113 59 69 45 255
-0.27786246 0.8977754 0.16748711 79 60 77 255
-0.27747023 0.8980196 0.16891584 86 65 83 255
-0.15758267 0.93567 0.1365034 100 95 97 255
-0.1790204 1.0041152 0.13237414 128 126 145 255
-0.08045237 1.0197217 0.0006306889 138 143 141 255
-0.19013698 0.090275355 0.09202055 78 87 99 255
-0.13158484 0.9559714 0.11134952 5 3 1 255
-0.20229591 0.075760245 0.06284305 94 104 118 255
-0.2143119 0.07095654 -0.09634475 110 122 142 255
-0.18552037 0.09188417 0.08996286 77 85 98 255
-0.2634458 0.8896236 0.14738363 43 25 39 255
-0.05234406 0.9375808 0.01514912 222 220 191 255
0.35981545 0.2657041 0.1262041 121 140 164 255
-0.16454385 1.0000842 0.10787606 117 114 115 255
-0.14039586 1.0058682 0.143143 119 121 123 255
-0.21249661 0.88307536 0.13521114 54 52 24 255
-0.13400799 0.9403326 0.13791978 108 108 107 255
-0.2229351 0.07232197 0.01477674 99 108 125 255
0.35352233 0.26160166 -0.12539443 113 135 164 255
-0.25216794 0.74218374 0.1315638 10 10 0 255
-0.26506734 0.98988044 0.16544136 68 54 54 255
0.10514124 0.18150285 0.13174741 91 109 134 255
0.10533606 0.17974423 0.13071579 91 109 133 255
0.10535704 0.18163015 0.13154373 92 110 134 255
-0.2161098 0.8823412 0.14298555 86 83 47 255
-0.14150865 0.5006824 0.057175074 96 95 110 255
-0.14155276 0.09928247 0.19410239 91 101 114 255
-0.26048964 0.64012724 0.060868442 1 2 2 255
-0.17931254 0.9482111 0.13578002 14 17 5 255
0.38071087 0.27127132 0.11057902 68 85 109 255
-0.24785691 0.98197186 0.09836794 122 116 123 255
-0.059408713 0.8639361 0.039469752 68 68 39 255
-0.2501316 0.0599855 -0.1734194 104 114 130 255
-0.10378762 0.82033205 0.03458007 14 23 7 255
-0.24185736 0.97462255 0.107590176 107 105 105 255
-0.121514 0.7997453 0.03788278 133 138 133 255
-0.121514 0.7997453 0.03788278 133 138 133 255
-0.03094607 0.13896577 0.12035185 70 85 106 255
0.38116863 0.26839772 0.077832185 85 103 126 255
-0.12337594 0.95310396 0.116583385 83 79 75 255
0.36316472 0.2780005 -0.2713792 127 151 181 255
0.41673625 0.27977422 0.118722975 124 143 169 255
-0.22113672 0.7995335 0.13102292 72 62 23 255
-0.12522136 0.9441092 0.13116497 47 44 47 255
0.4064406 0.27744013 0.12558295 111 129 156 255
-0.16020416 0.9365534 0.1347351 56 51 52 255
-0.080007814 0.123967454 0.12795939 62 71 86 255
-0.17310344 0.9446549 0.13326946 80 78 78 255
-0.20853126 0.83309656 0.1581893 85 83 49 255
0.4724767 0.2971269 -0.109834954 125 143 170 255
-0.19696008 0.07799109 -0.08131819 107 119 136 255
-0.1006644 1.0157988 0.091700956 117 123 128 255
-0.26740497 0.53277 0.059394725 141 145 147 255
-0.26733357 0.5334611 0.06017749 141 144 146 255
-0.24563722 0.7553649 0.17843492 103 98 60 255
0.052314326 0.16442747 0.15543383 81 98 120 255
0.20002167 0.205909 -0.18031703 118 141 166 255
-0.24622498 0.98150027 0.09563829 177 171 179 255
-0.39518553 0.003078661 -0.3977387 52 61 69 255
-0.1804048 0.94004977 0.09620192 53 55 49 255
-0.10167985 0.12524731 0.105379775 53 54 62 255
-0.24618301 0.76825565 0.1309869 62 57 36 255
-0.050247245 0.89443415 0.052288037 67 54 13 255
0.043093473 0.15544462 -0.039863568 100 116 138 255
0.11032199 0.18446612 0.17685334 76 95 116 255
-0.1955905 0.82698977 0.15376867 35 39 15 255
-0.23475815 0.97487897 0.12166264 75 73 71 255
-0.21108478 0.69610894 0.118468575 10 10 0 255
0.16252832 0.18944192 -0.30925527 107 131 159 255
-0.19601531 0.9983719 0.13936989 106 107 98 255
-0.13371491 0.989017 0.13317184 43 51 32 255
-0.2640512 0.642544 0.06110517 41 42 40 255
-0.24143174 0.8599425 0.14637657 61 55 31 255
0.1666495 0.19761245 -0.21316117 114 134 161 255
-0.32619753 0.023879688 -0.21994297 82 91 104 255
-0.053861856 0.18223692 0.07748961 70 67 79 255
-0.22362313 0.79512566 0.13075837 83 73 41 255
-0.051912595 1.0203737 -0.027257776 168 166 166 255
0.19154418 0.22017159 -0.21997958 119 138 166 255
0.20019867 0.21486305 0.07912507 119 136 159 255
-0.27522063 0.8987721 0.1664484 41 21 40 255
0.23622607 0.21901436 0.14895682 100 118 142 255
-0.38255784 0.9633639 -0.10299453 103 114 114 255
-0.24604042 0.49770784 0.07964154 12 21 5 255
0.45392436 0.30074322 0.11877626 83 103 126 255
-0.12952268 0.9541034 0.12030898 7 2 2 255
-0.1997136 0.9126278 0.12756279 46 46 44 255
0.35038888 0.26171157 0.12793823 89 105 127 255
0.11927305 0.18750986 0.13020809 104 124 151 255
-0.19107659 0.84626967 0.15430643 75 72 33 255
-0.114342764 0.8522707 0.06964468 3 11 9 255
-0.1889459 0.08935676 0.09809913 90 99 113 255
-0.07461524 1.0114887 0.1017387 106 105 103 255
0.3871812 0.26026765 -0.2585475 111 135 165 255
-0.19046147 0.69411284 -0.017250618 8 29 6 255
-0.101784766 0.64119816 -0.06664139 27 38 17 255
0.13713932 0.19482766 0.105140105 103 122 144 255
0.065591164 0.7945115 -0.42819408 230 208 176 255
-0.23234868 0.75437325 0.12754846 19 19 10 255
0.20658053 0.1562488 -0.17839944 110 134 162 255
-0.07923186 0.7542951 0.033115465 87 104 120 255
-0.17811193 0.74733233 0.14478992 94 112 71 255
-0.108569905 0.92046046 0.12771799 15 21 6 255
-0.17029062 0.5800257 0.16630282 3 10 1 255
-0.21948792 0.6985597 0.1378408 50 57 28 255
-0.035755716 1.0150431 -0.02844348 146 147 144 255
-0.1737736 0.7124556 0.15641832 1 4 2 255
-0.12960565 0.86660075 0.10229168 6 22 1 255
-0.26500008 0.9139826 0.08516526 1 1 2 255
-0.15619755 0.6387424 0.14268272 80 101 71 255
-0.16540179 0.9663463 0.08481857 81 76 77 255
-0.054159146 0.9207144 0.0635756 67 59 41 255
-0.30627182 0.9623476 0.11728533 109 101 107 255
-0.27623734 0.9146551 0.06785103 49 37 45 255
-0.25034907 0.7529507 0.18184286 119 116 69 255
-0.095596716 0.75969166 0.058465466 19 44 13 255
-0.23758563 0.95727664 0.13395533 3 7 3 255
-0.24382502 0.90910816 0.08659033 51 50 37 255
-0.30608952 0.7127057 0.052759614 23 30 20 255
-0.15403886 1.0412633 0.023984833 52 58 25 255
-0.2802971 0.91478264 0.120856225 53 24 47 255
-0.12043393 0.65478647 0.10069343 14 44 0 255
0.35828352 0.25848362 0.11076105 97 114 136 255
-0.24017856 0.88631713 0.16318677 74 49 70 255
-0.23995785 0.8874576 0.16308016 63 37 59 255
-0.042277843 0.79044014 0.12430624 111 127 142 255
0.37414595 0.26239657 0.08736516 99 118 142 255
-0.10556285 1.016266 0.09822649 127 136 139 255
-0.1819796 0.71636945 0.029315593 83 98 83 255
-0.06547483 1.0197276 0.10309008 116 117 117 255
-0.15554379 0.8651706 0.040830694 0 5 0 255
0.20559984 0.20916346 -0.16972646 104 124 152 255
0.25535324 0.22203492 -0.06843916 117 139 168 255
-0.25575638 0.53168267 0.1112844 131 136 142 255
-0.10399539 0.8481562 0.053014357 135 141 143 255
-0.32890293 0.8073854 0.05245404 22 13 12 255
-0.11313242 1.0143253 0.09228225 61 67 64 255
0.2656093 0.23064315 0.04774097 105 125 152 255
-0.17140989 0.7020854 0.06460619 88 100 67 255
-0.303128 0.5792049 -0.022985462 20 22 12 255
-0.18741238 0.63285816 0.09791964 4 9 2 255
